11.1111111111	46.8235294118	50.0187533926
12.037037037	46.8235294118	58.2037963723
12.962962963	46.8235294118	44.990753956
14.8148148148	46.8235294118	33.0744620416
15.7407407407	46.8235294118	30.9997285777
16.6666666667	46.8235294118	31.0852571344
9.25925925926	46.1764705882	52.2069993918
10.1851851852	46.1764705882	41.0941879531
11.1111111111	46.1764705882	48.8600444025
12.037037037	46.1764705882	45.4175649053
12.962962963	46.1764705882	42.3156565201
13.8888888889	46.1764705882	45.4896257768
14.8148148148	46.1764705882	33.0688406318
15.7407407407	46.1764705882	29.2770910849
16.6666666667	46.1764705882	29.4892073071
17.5925925926	46.1764705882	27.2944216825
8.33333333333	45.5294117647	54.9749366407
9.25925925926	45.5294117647	48.7140813096
10.1851851852	45.5294117647	40.5711784264
11.1111111111	45.5294117647	47.4863994155
12.037037037	45.5294117647	37.315025171
12.962962963	45.5294117647	42.6338106808
13.8888888889	45.5294117647	38.1640394183
14.8148148148	45.5294117647	32.0666411235
15.7407407407	45.5294117647	31.2931455572
16.6666666667	45.5294117647	27.266116933
17.5925925926	45.5294117647	27.999951417
7.40740740741	44.8823529412	59.0129050477
9.25925925926	44.8823529412	46.6431327311
10.1851851852	44.8823529412	35.7749099894
11.1111111111	44.8823529412	41.5087995673
12.037037037	44.8823529412	29.4027380834
12.962962963	44.8823529412	37.623386869
13.8888888889	44.8823529412	40.0433487391
14.8148148148	44.8823529412	39.3479191505
15.7407407407	44.8823529412	32.0779562301
16.6666666667	44.8823529412	27.5702863609
9.25925925926	44.2352941176	33.2058096855
10.1851851852	44.2352941176	22.5668830946
11.1111111111	44.2352941176	33.5662043766
12.037037037	44.2352941176	53.3610362802
13.8888888889	44.2352941176	43.5658648216
14.8148148148	44.2352941176	46.0246707648
16.6666666667	44.2352941176	28.9061983329
12.037037037	43.5882352941	58.0239403466
12.962962963	43.5882352941	44.9387158599
14.8148148148	43.5882352941	46.3511017872
12.962962963	42.9411764706	36.432243424
16.6666666667	42.9411764706	44.757008768
