11.8421052632	46.9583333333	61.4750501589
15.1315789474	46.9583333333	35.3760467313
15.7894736842	46.9583333333	32.0928973409
17.1052631579	46.9583333333	33.0392291271
9.21052631579	46.5	53.5898016618
10.5263157895	46.5	51.2896639788
11.1842105263	46.5	48.302547817
11.8421052632	46.5	49.5174144272
12.5	46.5	44.9161558344
13.1578947368	46.5	43.6993372916
13.8157894737	46.5	37.5701027524
14.4736842105	46.5	37.2818199642
15.1315789474	46.5	30.6192132352
15.7894736842	46.5	28.9729412778
16.4473684211	46.5	28.9759278759
17.1052631579	46.5	28.738916733
17.7631578947	46.5	30.2143165436
9.21052631579	46.0416666667	50.8241971218
9.86842105263	46.0416666667	41.0941879531
11.1842105263	46.0416666667	50.6065043296
11.8421052632	46.0416666667	41.0686574902
13.1578947368	46.0416666667	40.8402727473
13.8157894737	46.0416666667	50.0209209556
15.1315789474	46.0416666667	33.7564130608
15.7894736842	46.0416666667	27.5949633674
17.1052631579	46.0416666667	27.3075779487
7.89473684211	45.5833333333	56.9332787593
8.55263157895	45.5833333333	50.2480943034
9.21052631579	45.5833333333	43.004710195
9.86842105263	45.5833333333	34.3545046716
10.5263157895	45.5833333333	36.8022207011
11.1842105263	45.5833333333	47.5953704511
11.8421052632	45.5833333333	34.3629508652
12.5	45.5833333333	43.2266972645
13.1578947368	45.5833333333	42.3429580754
13.8157894737	45.5833333333	40.0287602868
14.4736842105	45.5833333333	38.6050221943
15.1315789474	45.5833333333	31.7557470879
15.7894736842	45.5833333333	30.8231751988
16.4473684211	45.5833333333	26.9332696792
17.1052631579	45.5833333333	26.2864613269
17.7631578947	45.5833333333	26.2051186447
7.23684210526	45.125	56.9381672491
7.89473684211	45.125	54.8005658264
8.55263157895	45.125	49.6328746113
9.21052631579	45.125	44.9925434903
10.5263157895	45.125	44.9531253219
11.1842105263	45.125	41.3851530219
11.8421052632	45.125	34.0151523139
12.5	45.125	51.7522552351
13.8157894737	45.125	37.5578822431
14.4736842105	45.125	47.5329630274
15.1315789474	45.125	44.5121067364
16.4473684211	45.125	29.309348315
17.1052631579	45.125	27.9852506871
17.7631578947	45.125	26.6020723676
9.21052631579	44.6666666667	59.5756886247
11.1842105263	44.6666666667	44.6020078887
11.8421052632	44.6666666667	24.4811143203
13.8157894737	44.6666666667	41.4891763336
15.1315789474	44.6666666667	41.343118149
7.89473684211	44.2083333333	25.6621796874
9.21052631579	44.2083333333	33.51930833
9.86842105263	44.2083333333	31.6350312777
10.5263157895	44.2083333333	33.7548429616
11.1842105263	44.2083333333	34.2796583348
11.8421052632	44.2083333333	44.5589618049
14.4736842105	44.2083333333	42.1574987052
15.1315789474	44.2083333333	46.665133814
15.7894736842	44.2083333333	55.3423184441
16.4473684211	44.2083333333	59.7131602183
11.8421052632	43.75	46.3458740399
12.5	43.75	42.9467370438
13.1578947368	43.75	37.7226908507
15.7894736842	43.75	60.7100859574
16.4473684211	43.75	58.0983540617
11.8421052632	43.2916666667	66.5976671784
16.4473684211	42.8333333333	44.5680471575
