10.1851851852	50.7058823529	25.9099698417
11.1111111111	50.7058823529	29.2500074771
12.037037037	50.7058823529	27.2767522974
12.962962963	50.7058823529	26.2799103565
13.8888888889	50.7058823529	26.6542038684
15.7407407407	50.7058823529	34.2554594354
23.1481481481	50.7058823529	23.4858602283
7.40740740741	50.0588235294	32.0737545601
8.33333333333	50.0588235294	20.1843864003
9.25925925926	50.0588235294	25.4450762389
10.1851851852	50.0588235294	27.024723696
11.1111111111	50.0588235294	29.325468343
12.037037037	50.0588235294	29.5392462164
12.962962963	50.0588235294	28.1671384381
13.8888888889	50.0588235294	31.4115479153
14.8148148148	50.0588235294	31.5305254243
15.7407407407	50.0588235294	33.5875242066
16.6666666667	50.0588235294	37.0242386518
17.5925925926	50.0588235294	30.699819499
18.5185185185	50.0588235294	29.6958809282
19.4444444444	50.0588235294	31.9122750097
20.3703703704	50.0588235294	34.078125618
21.2962962963	50.0588235294	33.9883315241
22.2222222222	50.0588235294	35.1721473944
23.1481481481	50.0588235294	21.9850562031
8.33333333333	49.4117647059	21.3782614874
9.25925925926	49.4117647059	23.3569560628
10.1851851852	49.4117647059	24.9051878977
11.1111111111	49.4117647059	28.9201532235
12.037037037	49.4117647059	28.2851159782
12.962962963	49.4117647059	32.2887664182
13.8888888889	49.4117647059	34.8938610364
14.8148148148	49.4117647059	34.0081787185
15.7407407407	49.4117647059	33.4698790078
16.6666666667	49.4117647059	35.2087431348
17.5925925926	49.4117647059	34.6486047703
18.5185185185	49.4117647059	31.2834415473
19.4444444444	49.4117647059	36.141303061
20.3703703704	49.4117647059	32.0831912949
21.2962962963	49.4117647059	39.1539385326
22.2222222222	49.4117647059	28.757642242
23.1481481481	49.4117647059	39.3767263785
4.62962962963	48.7647058824	33.666345069
5.55555555556	48.7647058824	36.7821175958
6.48148148148	48.7647058824	35.2417290585
7.40740740741	48.7647058824	26.7722588708
8.33333333333	48.7647058824	24.0198304216
9.25925925926	48.7647058824	22.8366576977
10.1851851852	48.7647058824	22.5661136298
11.1111111111	48.7647058824	25.1490898542
12.037037037	48.7647058824	26.7466098598
12.962962963	48.7647058824	33.6918913197
13.8888888889	48.7647058824	37.9258221034
14.8148148148	48.7647058824	34.6767328714
15.7407407407	48.7647058824	30.7117189241
16.6666666667	48.7647058824	30.7259180781
17.5925925926	48.7647058824	27.7891781812
18.5185185185	48.7647058824	23.3460517048
19.4444444444	48.7647058824	26.1134501627
20.3703703704	48.7647058824	27.718214612
21.2962962963	48.7647058824	29.6671195199
22.2222222222	48.7647058824	31.5538979858
23.1481481481	48.7647058824	48.1167027611
3.7037037037	48.1176470588	30.9210528236
4.62962962963	48.1176470588	32.2219603718
5.55555555556	48.1176470588	28.574795838
6.48148148148	48.1176470588	27.8464236589
7.40740740741	48.1176470588	22.7943517303
8.33333333333	48.1176470588	23.5897440852
9.25925925926	48.1176470588	25.6428263102
10.1851851852	48.1176470588	27.2319452795
11.1111111111	48.1176470588	29.9370157235
12.037037037	48.1176470588	33.8601715643
12.962962963	48.1176470588	36.4079422631
13.8888888889	48.1176470588	38.5376504676
14.8148148148	48.1176470588	36.051696603
15.7407407407	48.1176470588	39.0202684094
16.6666666667	48.1176470588	28.310386838
17.5925925926	48.1176470588	25.0419802793
18.5185185185	48.1176470588	28.9032563842
19.4444444444	48.1176470588	27.1722849841
20.3703703704	48.1176470588	27.5640246868
21.2962962963	48.1176470588	31.0750446758
22.2222222222	48.1176470588	31.8507721836
3.7037037037	47.4705882353	31.8041237838
4.62962962963	47.4705882353	28.1327597317
5.55555555556	47.4705882353	29.0895499607
6.48148148148	47.4705882353	27.0606618425
7.40740740741	47.4705882353	24.4172261061
8.33333333333	47.4705882353	24.645596581
9.25925925926	47.4705882353	28.6189835252
10.1851851852	47.4705882353	34.289714379
11.1111111111	47.4705882353	37.2843815726
12.037037037	47.4705882353	40.9978886833
12.962962963	47.4705882353	41.3311076761
13.8888888889	47.4705882353	44.7101291319
14.8148148148	47.4705882353	35.829200386
15.7407407407	47.4705882353	32.1980810215
16.6666666667	47.4705882353	30.2725261889
17.5925925926	47.4705882353	33.2861198453
18.5185185185	47.4705882353	26.2684574655
19.4444444444	47.4705882353	31.5437715585
20.3703703704	47.4705882353	34.9478781386
22.2222222222	47.4705882353	31.6627919732
2.77777777778	46.8235294118	32.0734346409
3.7037037037	46.8235294118	29.6803180219
4.62962962963	46.8235294118	27.2825703537
5.55555555556	46.8235294118	27.6988071555
7.40740740741	46.8235294118	29.4222847044
8.33333333333	46.8235294118	32.3524900043
9.25925925926	46.8235294118	40.2217864384
10.1851851852	46.8235294118	47.0790571881
11.1111111111	46.8235294118	54.4268854202
12.037037037	46.8235294118	61.2413891741
12.962962963	46.8235294118	42.9025967278
13.8888888889	46.8235294118	41.0097169714
17.5925925926	46.8235294118	30.6804117855
19.4444444444	46.8235294118	27.3831346534
20.3703703704	46.8235294118	25.8989160879
21.2962962963	46.8235294118	36.1337416535
2.77777777778	46.1764705882	30.6821983213
3.7037037037	46.1764705882	30.3245085885
4.62962962963	46.1764705882	28.293288784
5.55555555556	46.1764705882	26.9049796262
6.48148148148	46.1764705882	29.676717617
7.40740740741	46.1764705882	33.8305577544
8.33333333333	46.1764705882	42.0507836855
9.25925925926	46.1764705882	39.591286743
10.1851851852	46.1764705882	46.8487754267
17.5925925926	46.1764705882	27.2225221226
18.5185185185	46.1764705882	31.0002153584
19.4444444444	46.1764705882	23.0140020305
1.85185185185	45.5294117647	28.1043226463
2.77777777778	45.5294117647	28.4941708781
3.7037037037	45.5294117647	25.570629404
4.62962962963	45.5294117647	28.8813338448
5.55555555556	45.5294117647	33.1499261155
6.48148148148	45.5294117647	41.5860903138
7.40740740741	45.5294117647	44.4670763638
17.5925925926	45.5294117647	23.3460517048
18.5185185185	45.5294117647	20.1738710771
2.77777777778	44.8823529412	27.8902847654
3.7037037037	44.8823529412	27.7106103254
4.62962962963	44.8823529412	30.2436772289
5.55555555556	44.8823529412	41.3068943686
6.48148148148	44.8823529412	41.0562725027
7.40740740741	44.8823529412	50.3515235517
2.77777777778	44.2352941176	28.5483806916
3.7037037037	44.2352941176	28.3761291181
4.62962962963	44.2352941176	27.7496559076
5.55555555556	44.2352941176	31.6361319435
6.48148148148	44.2352941176	43.2388528176
7.40740740741	44.2352941176	43.7648690282
8.33333333333	44.2352941176	23.2915445995
2.77777777778	43.5882352941	29.6382050455
3.7037037037	43.5882352941	28.3026504491
4.62962962963	43.5882352941	25.9502552706
5.55555555556	43.5882352941	25.7049794876
6.48148148148	43.5882352941	30.4733473192
7.40740740741	43.5882352941	22.5957130002
8.33333333333	43.5882352941	20.1849992459
1.85185185185	42.9411764706	30.485982464
2.77777777778	42.9411764706	25.8721560747
4.62962962963	42.9411764706	27.7110606827
5.55555555556	42.9411764706	25.1643315949
6.48148148148	42.9411764706	25.3325562987
