10.4285714286	50.787423901	27.8900745463
12	50.7495340485	27.2767522974
13	50.7281928393	27.2799103565
14	50.8604461392	26.6542038684
16	50.6271795006	34.7584462917
8.99918369182	49.85611478	26.6636939916
10.6196066207	49.9299343144	29.5082323457
11.9169355264	49.9941905787	30.6403828536
13.2039233493	49.9861080394	30.077205697
14.5309785302	49.9070166469	32.4810952039
16.1083611068	49.9858604849	34.3627260927
17.6133017733	49.9497775838	34.0210727989
19.2193014356	49.9776819732	29.5540417743
20.4821612081	50.0011960213	38.1589515708
21.9649495336	49.9820256283	35.1403409453
22.9686377049	50.0583457049	23.899539576
5.03638035844	48.610894469	33.7182893959
5.95007942853	48.6912020196	33.6551343814
7.50817482993	48.7271049865	26.7866598701
9.03756768314	48.9244976713	23.4955241312
10.4192247961	49.0007181003	25.3468099934
11.8494607141	48.9933805301	28.3634483105
13.1934531172	48.9859444399	34.8167221111
14.6234991543	48.9379508558	38.1583820337
16.0838258636	48.9607907861	35.9310403759
17.6493494614	48.9365172916	31.8115661676
19.1023082103	48.9372926997	31.5506831898
20.5398116168	48.9616346604	30.631890734
21.94404304	48.9721793708	30.1440983913
23	49.1763491833	47.0573116844
4.67327090942	47.9221715363	32.0736684503
6.00850134278	47.9853361691	28.1978407307
7.46527561284	47.9546542427	23.4343947128
8.86007584758	47.9448164135	24.8898519178
10.4526859987	47.9800868056	30.5468617027
11.8086241642	47.9315974433	36.0879472321
12.9676460248	47.944466795	38.6850236712
14.5957899571	47.9824408861	36.433856742
16	47.7910453343	37.9898111329
17.5213530286	48.0783026164	29.5554398831
19.0563484518	47.984416226	29.5863888078
20.3449251312	48.0102034794	29.3870910287
22.1320605249	47.8971892712	34.3538202166
3.45876369753	46.5	32.4439001142
4.41948429326	46.900965462	28.6000864275
5.95715780593	46.916198692	28.6965140851
7.37088085031	46.9137175347	29.4741139105
8.95635310255	46.9061221745	36.8920465605
10.3307523937	46.8616582549	46.4242212752
11.8794864619	46.9491510143	44.4494958475
13.1659771945	46.91136334	42.8145710247
14.7156461991	46.8904973707	36.1998446872
16.1382033515	46.8325699507	30.213346301
17.5597731656	46.9374646768	32.6051418773
19.0176710279	46.8450193315	28.5098958008
20.492102681	47.0528765099	36.7580726282
21.9377345767	47.24808764	31.9035560934
2.98012689665	45.8850090861	30.1509414083
4.495968846	45.9207356904	29.6816767127
5.99976779636	45.9280137991	31.4379863909
7.47389515307	45.9525254165	45.3374031246
8.92167287504	45.8824724896	48.6670715905
10.3731341483	45.8948750239	41.0153019248
11.971496624	45.9312217979	39.4109991727
13.1556918472	45.9210139225	42.090701909
14.6143106091	45.9063031562	37.5747419541
16.1081191147	45.8851297372	28.8780536381
17.3614416025	46.0456312217	26.5665437931
19	46.1324455331	19.130631701
3.17474694161	45.0886963546	27.8796880995
4.4339309418	45.0875563679	29.3296676096
5.98561194007	45.1174850013	36.4925495427
7.24566332112	45.0761669851	54.2458528142
9.0514077764	45.0989236131	45.6554479361
10.9337150474	45.0301727869	43.2927230444
11.875741427	45.1099559372	38.4119364411
13	45.4893210069	45.5161313242
14.4207337738	45.0549180068	41.7372305577
16.6141543722	45.1	29.2200974596
17.3923982378	45.140596545	26.9621576872
3.0049579471	44.033460377	29.8119713796
4.42811308951	44.0458773521	27.9599901422
5.94438054335	44.0624957001	31.0352005284
7.16283178492	43.9932257808	34.7166128146
8.88446874837	44.213947902	32.8883331845
10.5514345462	44.0425688912	27.3154629373
11.7152160989	43.918468016	41.4409950822
12.8115968062	43.6631165319	36.8635954734
14.9945695393	44.37192295	45.7055519817
16.0422110673	43.9916666667	58.5490568153
2.09320216698	43	31.0801127302
3.0314587348	43.1690145494	28.5445048352
5	43.3991108312	28.6762082348
6.01633252154	43.165455254	25.6384985086
7	43.4807967637	16.6538623697
9.10494957855	43.233833192	35.6029935457
10.5938038843	43.1233784398	33.3126513236
12	43.3580421885	66.5976671784
16.407518469	43	44.5680471575
