10.3333333333	50.8278817839	27.6039442607
12	50.8314021565	26.8396409823
13	50.9418974284	29.1251787741
14	50.8604461392	26.6542038684
16	50.680662875	35.0247334509
8.32532202	50	38.9705997178
9.16724095568	49.9462102337	25.3923577117
10.5850254044	50.0395060398	29.3322088364
11.9169355264	50.0475159434	30.6555867255
13.1476764765	50.0619025743	29.4368577187
14.4979673686	49.9845784152	31.7233798568
15.9799994631	50.0807182782	34.1774265385
17.0953160989	49.9928212508	36.4673678475
18.2368664735	50.0028276381	30.8208055533
19.8153484024	50.01565038	32.6015243205
20.9335316727	50.0562493008	42.473031303
22.4550429264	50.0830183253	28.676275843
6.33333333333	48.8817426012	35.1666748272
7.92065388736	49.0089722335	23.5386982842
9.17163670436	49.3246075183	23.2996624369
10.6162707335	49.2572036309	26.1390545556
11.8712310949	49.2631164688	28.5298465452
13.0772561895	49.2719444695	34.4456731608
14.4479087513	49.2883991718	35.7559007173
15.9476402842	49.2719654623	33.5405462921
17.0904163732	49.3228720103	35.8353175971
18.4530808409	49.2672135258	35.7494978613
19.8574625173	49.3217979426	33.5311574393
20.9998454823	49.1614785974	34.4682352749
22.3596519395	49.2605112828	32.9521074631
4.3482999264	47.9	33.5055565352
5.23285985538	48.2409706093	31.3483476014
6.43412261536	48.2491860306	27.6483756242
7.90340146412	48.3518671554	24.9178640417
9.2149687611	48.3198157364	24.5207572871
10.5040434948	48.2335956218	28.9639747539
11.8677381236	48.3036551207	31.7952942209
13.0636217819	48.3215880237	35.6741079242
14.5028926936	48.29531454	37.8736622011
15.7371990536	48.46396408	39.5914585989
17.1897024425	48.4456625353	29.8818071168
18.6006156541	48.4148013127	26.0254681847
19.8556291194	48.4063842366	28.3976578265
20.9515175052	48.3925885221	27.8447786389
22.0304551801	48.2473977082	32.8841278496
4.08812554197	47.2772576973	29.7477870581
5.1401786892	47.2766300476	28.5111890947
6.40245379372	47.3353539436	28.3194609042
7.99377756373	47.3371886122	26.8551277297
9.05024431942	47.3467918411	30.8906868764
10.3477558915	47.3677310577	37.7773519632
11.8599347178	47.3137008309	39.2035846068
13.073846518	47.3102605109	43.4735678267
14.4968690281	47.397492149	39.5858325153
15.9279352997	47.3402285456	33.1114984616
17.1075371445	47.25392514	32.5090179768
18.4470886792	47.3537503041	33.2404789391
20.067224377	47.3469286271	35.6471411648
20.7252280858	47.0822024716	37.2522415856
21.9377345767	47.24808764	31.9035560934
3	46.2928490773	37.1320539077
3.88216588547	46.4776520673	30.1620358993
5.16479651295	46.5078874982	27.3419684679
6.40189348404	46.4677369863	28.9570619268
7.96185099102	46.4835571944	38.6019387369
9.1970545502	46.5754572746	44.5025557079
10.4853844868	46.3668644314	47.4595306609
11.9535345874	46.4476083509	47.4354815613
13.0721989149	46.4619219187	42.4465851405
14.5145557208	46.4914078937	36.3459252989
15.5643319035	46.6377010673	30.3762679673
17.6146673354	46.5	29.8180321699
18.6041536453	46.4607378239	28.7993827064
19.4482810034	46.5	25.6091929235
21	46.7488116417	35.8477828303
2.86237890746	45.6858782956	28.9498367482
3.95371621154	45.6981007564	26.8326427537
5.09367001386	45.6929943841	31.5385720697
6.36934636715	45.643756347	35.7982358396
8.01577081699	45.6801799609	54.4979493905
9.16918224512	45.7221023631	44.1524704553
10.5034650518	45.7271558533	40.7009127514
11.9637229759	45.8295379395	37.2595579243
12.9280314057	45.8387314657	41.8682591441
18.1264872111	45.8	23.026468554
2.92085160535	44.5874493604	28.7013717636
3.95931684076	44.7545371832	29.3366932448
5.12417665781	44.7276276042	29.8389467014
6.53427012181	44.6905682643	43.4752004673
7.92449348094	44.8789473684	44.7081349066
9.08864973389	44.8937974839	42.9268150838
10.8508588566	45.1	43.7337161527
2.92331770016	43.7691594343	29.802792862
3.98725778949	43.7560351914	28.3130508702
5.19804656893	43.7000929501	28.117854715
6.41665638062	43.7119504547	30.5306329685
7.67709222741	43.7	21.9270195795
2.66244785464	43.0543209913	28.450878554
5.5158789968	43	23.9502970074
6.16865211234	43.0778689944	25.3029407978
